# .PCD v0.7 - Point Cloud Data file format
VERSION 0.7
FIELDS x y z intensity
SIZE 4 4 4 4
TYPE F F F F
COUNT 1 1 1 1
WIDTH 1355
HEIGHT 1
VIEWPOINT 0 0 0 1 0 0 0
POINTS 1355
DATA ascii
3.4412832 0.32542413 -1.0135241 11
3.9381058 0.28713858 -1.0884523 9
2.3710647 0.5993346 -1.1323047 15
2.4355733 0.44135192 -1.0773133 13.5
3.3796473 0.46806639 -1.1456685 12
3.9029624 0.43876708 -1.1361254 10
3.8776867 0.7016924 -1.0964463 11.5
3.8003628 0.92454338 -1.1078918 13
3.780452 1.1522448 -1.0224233 14.333333
3.8512321 1.1687175 -1.0285379 15
3.3573847 1.38469 -1.1655684 15
-1.2151322 -2.0132954 -0.84520674 14
-1.3984563 -1.3787578 -0.98190355 14
-1.2822491 -0.81928861 -0.80995786 6.5
-1.3870888 -0.67932403 -0.84504879 8
-1.7308763 -0.57277584 -0.90724719 6
4.0299201 -0.4558084 -0.81660056 5
-1.6823817 -0.32241485 -0.91126168 8.5
1.4958147 -0.31809187 -0.8258481 14
1.9672302 -0.20165169 -0.98104715 13
2.0477576 -0.28918463 -0.85627151 9.5
3.9735067 -0.27390605 -0.87351036 6
0.48185474 -0.030854493 -0.90744829 8
0.82630461 -0.011855292 -0.80948675 8
1.9784858 -0.088712096 -0.98981452 11
2.5687857 -0.028687 -0.88084769 10
3.3826702 -0.11580791 -0.93148941 6.5
3.6614511 -0.14733231 -0.92322135 8
3.9427922 -0.096083522 -0.94116473 7
-1.816798 0.044267163 -0.84013188 12.5
-1.7372375 0.10518014 -0.87185645 13
-0.25111315 0.13735506 -0.80210835 12.75
1.885708 0.11152178 -0.92241788 14
2.0270371 0.097725391 -0.84761047 13
3.1936445 0.008171916 -0.88892174 10
3.564126 0.1995033 -0.90825748 10
3.9303944 0.088542633 -0.84251475 7
4.026814 0.18622077 -0.88370323 9
-1.8182138 0.22955644 -0.93191159 14.5
-1.7623107 0.27944338 -0.94334841 14.5
2.494349 0.33792353 -0.90845251 13
3.2731004 0.24025238 -0.99569321 11
3.8970509 0.3073324 -0.85824883 8.375
3.8805022 0.47649792 -0.86318225 9.75
3.7605987 0.60723209 -0.94006729 12
3.9231231 0.7094872 -0.87384665 12.5
3.7018609 0.90543151 -0.86937457 12.5
3.9114807 0.92589855 -0.86728847 14
3.5283847 1.0996797 -0.94226956 14
3.9157248 1.075652 -0.86608112 15
3.4430029 1.2540548 -0.93728781 14.5
3.7851088 1.3211398 -0.85478342 14
3.818855 1.2642875 -0.9358809 15
3.3165097 1.5508859 -0.85324764 15
3.7610605 1.484476 -0.89069068 15
-1.1363972 -2.2250588 -0.74324226 13
-1.7316957 -1.0791851 -0.65066135 7.5
-1.3028872 -0.87773019 -0.67044425 5.5
-1.6900606 -0.77718449 -0.68226188 8.25
0.55952823 -0.73370218 -0.66896009 14
2.2688365 -0.66797328 -0.79752064 9
-1.7070796 -0.5122472 -0.74613976 9.25
2.1647568 -0.46720243 -0.78214979 10
-1.7408491 -0.32551959 -0.75697845 9.75
2.0844426 -0.25097418 -0.74567056 11
3.4114254 -0.28983104 -0.73024911 4
-1.802875 -0.13503209 -0.79382455 10.5
-1.7609 -0.06390354 -0.67979747 12.5
0.48365897 -0.1025694 -0.69441402 6.5
0.90403646 -0.10534558 -0.67084742 5
2.0858421 -0.024706006 -0.74500537 12
2.6028142 -0.17184615 -0.78611183 9
3.2555552 -0.12843049 -0.76632547 9
3.9864171 -0.17822564 -0.79029346 5
-1.8218482 0.11329447 -0.62997735 14
-1.7447169 0.016447961 -0.69850111 12
0.0074266568 0.10234468 -0.75611186 11.75
1.784219 0.15393293 -0.794976 14
1.8439062 0.021775007 -0.67857575 13
2.5836411 0.1474936 -0.74266386 11.5
3.0593181 0.14325941 -0.64119101 11
3.7976117 0.13325408 -0.65197152 8
3.9598167 0.055571556 -0.73925447 8
4.0527663 0.14488769 -0.60099888 8
-1.8117244 0.33992353 -0.69683492 15
1.8724483 0.21464038 -0.61148548 14
2.9516854 0.32886064 -0.74631524 12
3.4665251 0.35704803 -0.66400623 11
3.7703302 0.27149868 -0.67616141 9
3.8840506 0.29311326 -0.68149406 8.666667
2.3362901 0.5330838 -0.73316622 14.5
3.3480835 0.47118127 -0.78952742 12
3.7224693 0.57999754 -0.61446452 11
3.8410695 0.49604464 -0.74116963 10
2.2246497 0.75343323 -0.6001265 15
3.2708285 0.60021961 -0.62297416 12
3.6885223 0.72162914 -0.78902555 12
3.8467445 0.66037601 -0.75995672 11
3.7077978 0.91158408 -0.65417814 12.333333
3.3754253 1.084494 -0.69797182 15
3.5377414 1.0958645 -0.7603426 14
3.7548521 1.0909015 -0.69315213 12.666667
3.6951439 1.3150133 -0.69457644 13.833333
3.675283 1.4885633 -0.64614189 14.75
-1.0448076 -2.3688438 -0.56572628 12
-0.23839289 -1.8327527 -0.54059434 9
0.62778151 -0.86032438 -0.52296305 13
-1.3417915 -0.64083701 -0.43154502 5
1.6208096 -0.71359539 -0.48898983 12
-1.7276568 -0.40001556 -0.58602297 7
-1.3869164 -0.51689965 -0.53381109 6.5
2.1261992 -0.53163457 -0.53535604 10
3.2944336 -0.40335405 -0.44938874 8
4.0820298 -0.43941307 -0.40903902 5
-1.7784761 -0.24238095 -0.50801682 8.5
-1.4980364 -0.37237144 -0.55764866 8
2.0013981 -0.27026689 -0.58660269 11.5
2.2122273 -0.33365589 -0.48979485 9.5
3.9807518 -0.28313369 -0.44545507 5
4.0511765 -0.26328969 -0.50613999 6
-1.8198181 -0.1075806 -0.45585561 10.5
-1.7953267 -0.059931368 -0.51314223 10.5
-0.0021541566 -0.0083597917 -0.44674671 10.5
0.4588939 -0.08179234 -0.57147539 8
0.83997089 -0.092131689 -0.50458795 7
2.7076356 -0.10655963 -0.53476334 9.5
3.3594317 -0.097347215 -0.59992957 5.5
3.9494543 -0.075246245 -0.50336337 6.5
-1.8792672 0.10040015 -0.43688023 15
-0.25999668 0.057034057 -0.49777383 12.75
-0.010786302 0.10378364 -0.44921052 13.5
1.8988832 0.076132417 -0.50387907 13
3.1241865 0.0061343908 -0.52056026 10
3.313875 0.1323384 -0.52747679 8
3.4018776 0.18622237 -0.45902216 7
3.7771008 0.0043519149 -0.47533786 7
3.8841352 0.12537703 -0.49274814 8
1.7637985 0.36248887 -0.42834163 14
2.4222584 0.3430016 -0.55650091 13
3.5417156 0.21211064 -0.54584551 10
3.7609758 0.37038273 -0.47403115 9.25
3.8898213 0.20322919 -0.46408868 8
2.9070594 0.42087138 -0.46227837 11
3.3755732 0.47882569 -0.49579263 11
3.7667627 0.56075025 -0.5480544 11
3.8277502 0.46014348 -0.47558045 9.333333
2.2884376 0.62749135 -0.48374391 14
3.7827175 0.6933341 -0.50417876 10.75
3.8225384 0.6334573 -0.56295526 9.5
3.1470182 0.83985162 -0.4700861 12
3.4592133 0.96051085 -0.50693607 14
3.7290115 0.94835967 -0.53884506 12.666667
3.8126349 0.8310715 -0.42092037 11
3.7497387 1.1335453 -0.54349989 14
3.3999398 1.3249705 -0.40656137 14
3.6574147 1.3058728 -0.42622161 14
3.3096387 1.4783025 -0.53436327 15
3.5820658 1.5191776 -0.40997612 14.5
-1.6441073 -1.032119 -0.28869557 11.75
0.69993198 -0.99718523 -0.39737129 12
-1.699509 -0.66254717 -0.29858023 9.25
-1.5918393 -0.79973769 -0.30114865 11
0.49694562 -0.71043563 -0.34768677 14
-1.7670456 -0.45686966 -0.34748411 7
-1.4872265 -0.48128837 -0.38923144 6.5
2.1559591 -0.53752828 -0.2652266 9
-1.831509 -0.27394027 -0.2123301 10.5
-1.7921592 -0.25085312 -0.38533425 9
2.0264807 -0.36651897 -0.34038281 10
3.5372391 -0.26235241 -0.21382737 6
-1.8680565 -0.068174481 -0.32343566 13
0.42391089 -0.1306814 -0.21262687 7
2.0349092 -0.06418246 -0.33106446 11.5
2.6017799 -0.023415804 -0.21800876 10
3.141181 -0.064205885 -0.31331956 9
3.3595235 -0.004630357 -0.38413239 5.5
3.460954 -0.025709838 -0.39409435 5.5
3.7792668 -0.10378763 -0.31698954 5.75
1.8913331 0.033810019 -0.34942889 12
2.5124393 0.15922022 -0.38562727 11.5
3.0701141 0.16565973 -0.26954925 9.5
3.4619741 0.091968894 -0.32108855 9
3.7516007 0.14837086 -0.38738346 8
3.8847468 0.13470687 -0.28397959 7.6666665
-1.8955121 0.32863706 -0.31090117 14.5
1.7933272 0.29518294 -0.22435379 14
1.8186202 0.24615276 -0.310642 13
2.9807312 0.2794615 -0.34262419 10
3.4475245 0.33296072 -0.37732625 10
3.7762876 0.25679156 -0.3685509 8
3.8473697 0.34160995 -0.27878678 8.5
2.3412604 0.50229895 -0.36200309 13
2.938149 0.48546875 -0.23336887 12
3.2890463 0.56059289 -0.21712446 10
3.7798181 0.50724053 -0.28170142 9.25
3.8100572 0.45896015 -0.38143432 8
1.7110908 0.617926 -0.22139502 14
2.2789848 0.73719442 -0.21553612 13
3.2899723 0.7455411 -0.34007168 11
3.7429497 0.68868089 -0.34248209 10.333333
2.0020354 0.92505038 -0.393466 15
2.2080553 0.86633873 -0.31745148 14
3.5577459 0.83241248 -0.33959436 13
3.6704578 0.95658916 -0.31782946 12.166667
3.8360844 0.93421507 -0.26874316 11
3.4828484 1.195204 -0.24915075 13
3.7233012 1.1346302 -0.33251119 13.5
3.5227709 1.362897 -0.372329 13
3.6584539 1.2986321 -0.21656704 13.5
3.2667608 1.6697073 -0.26057816 15
-1.6358523 -1.2199181 -0.14623237 8
-0.80688095 -1.264148 -0.12638712 14
-0.303909 -1.0939316 -0.073123693 13.5
0.57102543 -0.82607698 -0.19438219 13
0.67085975 -0.96341038 -0.088809013 12
-1.7811188 -0.6179471 -0.10747242 6.5
-1.7982388 -0.44866312 -0.17288637 8.5
-1.5135832 -0.47335303 -0.12125921 8
2.0910506 -0.45427537 -0.18386221 9
-1.8134599 -0.22591519 -0.11135483 10.5
2.0631604 -0.27876961 -0.18435407 10
-1.8367031 -0.0204193 -0.16823888 12.5
-0.054971747 -0.046495207 -0.10211104 9.666667
0.6805445 -0.13916889 -0.1262185 6
0.83853924 -0.1429252 -0.1807124 6
1.9250798 -0.03211832 -0.14810276 11
2.6667738 -0.14986956 -0.11680436 9
-0.31679451 0.044078618 -0.16826636 12.75
-0.063232474 0.09752883 -0.11887544 13.5
1.8908538 0.11763549 -0.03276968 12.5
2.5085418 0.12774086 -0.027445078 10
3.5662992 0.054050565 -0.11327744 8
3.7093682 0.10672352 -0.020513147 6.5
-1.9499924 0.35631913 -0.061255455 14.5
1.7992027 0.32426786 -0.059626579 12
2.4288211 0.31219733 -0.19874835 11.5
3.7366047 0.30926061 -0.098954618 8
3.8668492 0.21418083 -0.070244551 7
1.7430582 0.47557831 -0.12245369 13
3.4405367 0.46211743 -0.097527504 9
3.7312312 0.55128455 -0.052098364 8.666666
3.8117478 0.41150731 -0.08660984 8
3.2140193 0.78956974 -0.098497391 12
3.7220955 0.72997123 -0.070009902 9.75
2.2134128 0.92806232 -0.086798668 15
3.6835797 0.90157729 -0.056788266 11.166667
3.6758568 1.1037194 -0.11988777 12.333333
3.3994682 1.2513431 -0.16671991 14
3.6155334 1.2707534 -0.1358352 13.5
3.3251348 1.5378295 -0.097410321 14.5
3.6386902 1.5385634 -0.19854057 15
3.5202632 1.6628119 -0.049442232 14.75
-0.70953757 -1.5440335 0.16270638 12
-0.59817183 -1.4916213 0.15254879 12
-0.72952199 -1.3860438 0.022934914 13
-0.20041028 -1.2760434 0.14317751 12
-1.4909253 -1.1025608 0.13908589 12.25
-1.5150622 -0.87779725 0.027764797 14
1.8140326 -0.87025261 0.19592857 9
-1.6822182 -0.75617492 0.18318236 14
-1.8101296 -0.40247023 0.02680397 8.5
-1.7893481 -0.53990138 0.10274339 7
-1.8815402 -0.1647681 0.140288 8.5
0.35820189 -0.038288787 0.055808544 7
0.75795627 -0.093257643 0.092850596 5
1.9980936 -0.087637305 0.026877403 10
2.044163 -0.1994853 0.14185309 9
3.7239518 -0.10639123 0.01337719 5
3.9392622 -0.039395094 0.19929814 5
-1.9189792 0.12230023 0.046828788 12.333333
-0.38080245 0.13230935 0.13967705 12.75
-0.12074507 0.1157715 0.18036187 11.583334
0.35536638 0.011265039 0.063477039 8
0.7520498 0.067182243 0.11116564 8
1.8751562 0.15698659 0.12248898 10.5
2.5625484 0.0057278872 0.084528446 9
3.0879648 0.14189863 0.075189829 8
3.3426507 0.10557333 0.1439693 8
3.8995712 0.11247462 0.10451198 6
-1.9316854 0.286643 0.056043148 15
1.7145953 0.36813307 0.021025658 14
3.2425404 0.21149507 0.19194639 5.5
3.4588149 0.31277943 0.069928885 9
3.7825942 0.31824589 0.073145866 8
3.9030466 0.32443392 0.0062589645 8
1.7661577 0.53185797 0.12402058 14
2.9882689 0.5206188 0.098069668 11
3.1949549 0.41511288 0.14046359 7
3.3876257 0.51519525 0.13823229 10.75
3.8197095 0.57670689 0.12559748 8
2.3345764 0.6991924 0.17345762 13
2.8630555 0.76123142 0.1525569 12
3.3176756 0.69137299 0.093022563 12.25
3.7254362 0.68336719 0.13162525 9
3.8266861 0.68181539 0.08546555 9
2.2802262 0.81013036 0.035997868 14
3.1767058 0.93449163 0.08195591 12
3.3483269 0.89861977 0.13359091 15
3.6818671 0.87635863 0.034722626 10.5
2.1411452 1.0204886 0.10525656 15
3.5736558 1.170459 0.11958504 12
3.609365 1.071666 0.16779399 10
3.5336123 1.2410799 0.13557458 13
3.5194478 1.4835305 0.12708029 13.875
3.2740803 2.0255041 0.1359818 15
-1.3966063 -1.4030529 0.38079643 9.5
-1.4684682 -1.3056281 0.21380663 11
-1.3874822 -1.1578847 0.33556414 11
-0.3014138 -1.0850184 0.32838678 14
-1.620877 -0.88583112 0.26493859 13
1.8846993 -0.98164701 0.34796143 8
-1.4451568 -0.60262614 0.30717182 7
-1.7600269 -0.41009748 0.31501245 12
-1.5767806 -0.49366003 0.32950854 8
-1.8473105 -0.28344339 0.3593626 10
-1.7798069 -0.3046937 0.26581621 13
-1.8698857 -0.095192373 0.33497357 11.75
3.2274296 -0.030365467 0.30924225 8
3.7136502 -0.035308182 0.29686695 5
-1.9611928 0.15951478 0.38732219 13
0.38778549 0.14009866 0.29244828 8
0.62371427 0.15379864 0.38648295 7.25
1.9656274 0.021001101 0.32289886 9
3.6983848 0.069533534 0.34971333 5.5
-1.988466 0.32401982 0.26414466 15
-0.35751653 0.23400743 0.37229371 12
1.861841 0.2727384 0.3005197 12.25
3.1065609 0.30457255 0.32559505 9.333333
3.6442623 0.2928471 0.30471805 7.3333335
3.906508 0.39806569 0.38272882 7
1.8387846 0.45599794 0.27642512 13
2.8655863 0.58836818 0.32275724 12
3.6761141 0.54724967 0.26663947 8.25
3.8826761 0.57211852 0.20385981 9
1.692456 0.61952794 0.3550725 14
2.9837737 0.69150561 0.3475759 12.5
3.6850955 0.66951668 0.33424985 8.875
3.8097525 0.70814157 0.37595129 9
2.2382441 0.86119914 0.31151271 13.5
3.2367723 0.90316319 0.39913642 14
3.5931079 0.89042306 0.2979936 11
3.679141 0.89495057 0.30820751 10.5
3.24018 1.0308588 0.39241683 15
3.5813119 1.0913692 0.2735689 11.833333
3.6597135 1.0670272 0.3210243 10.333333
3.5641766 1.2761602 0.34735054 12
3.6067989 1.2321856 0.32779586 12.5
3.5537636 1.5375534 0.29952335 14.5
3.3922005 1.7839123 0.34087467 13
3.4135683 1.7741947 0.39554977 15
3.3564444 1.8917844 0.2518276 14.5
-0.0016685724 -1.6148932 0.58519626 9
-1.3502054 -1.5717021 0.5064652 8
-0.22451285 -1.2009251 0.47226954 13
-1.4822204 -0.63567322 0.47762322 6
-1.8451611 -0.40822092 0.52963573 7.416667
-1.8988888 -0.22588521 0.52504301 8.5
-1.9296415 -0.050057709 0.48347414 10.5
1.9929676 -0.069816828 0.53903794 10
-1.9153233 0.16783434 0.40683579 14
0.31307295 0.1502648 0.58407748 8
0.58230698 0.045530319 0.4123894 5
1.9647779 0.050428152 0.41402423 10.75
2.82529 0.1006871 0.53234828 8.5
3.6646812 0.082529724 0.52098078 5.5
-1.9694302 0.31232053 0.56150031 15
2.520874 0.36115253 0.53629756 10
2.8369143 0.30353841 0.51720643 10.5
3.2625587 0.20340848 0.50410438 8
3.6884384 0.28379345 0.5470686 6.25
3.9657331 0.26642847 0.50419641 6
1.7589114 0.53700995 0.50037336 13
2.4498484 0.47928989 0.42992306 11
2.9212918 0.49931508 0.47711414 11.75
3.0692434 0.50283885 0.51216412 9.5
3.2385576 0.59645492 0.41494405 11.5
3.5992417 0.42356685 0.53311861 8
3.7055078 0.48931989 0.46683085 7.5
2.3744304 0.64925539 0.56528568 11.5
2.8925149 0.78629225 0.48303515 15
3.2675774 0.78583407 0.40656659 13
3.754663 0.79046702 0.59242868 8
3.8524747 0.62855268 0.47187257 8
2.2170835 0.91009235 0.55129528 14
3.1090803 0.89023423 0.40703726 12
3.2629972 0.82870841 0.5430336 11
3.714721 0.87650013 0.46728349 9.333333
2.1453741 1.0081375 0.41236973 15
3.2165148 1.0254092 0.59037304 13.5
3.5799825 1.0329573 0.55191576 10.333333
3.6495852 1.1104469 0.50645471 10.5
3.2011244 1.2162162 0.58846635 15
3.5056379 1.34026 0.44766748 12
3.4961331 1.4789095 0.50717032 12.3
3.3845429 1.7514157 0.52325892 13
3.4367628 1.7048159 0.49228132 14.5
3.3405089 1.9202216 0.57368279 13
3.2417896 2.0840464 0.43938446 14.75
3.2425992 2.2146893 0.59962749 15
0.10542041 -1.7105558 0.72063899 8
-1.5470612 -1.3183718 0.76969612 9.333334
-0.25422257 -1.3501816 0.64702511 12
-1.5008838 -0.85716093 0.72371697 11.5
-1.6222299 -0.79654551 0.71633554 12
-1.5325898 -0.67918795 0.68322456 10.5
-1.8850923 -0.4398374 0.77297759 6
-1.7130315 -0.46406364 0.7049439 14
-1.8701637 -0.18363965 0.73909187 12.5
2.0769544 -0.11579144 0.65400457 9
-1.9604771 0.13483214 0.78816319 12.5
0.32581297 0.11577711 0.61988795 7
0.73730403 0.12421514 0.65061331 5.75
1.8918533 0.14860582 0.6425631 12
4.023962 0.16808856 0.65857601 5
-1.9897935 0.25629377 0.71359134 14
-0.17710608 0.25775814 0.67071509 12
0.69604015 0.23258631 0.61138976 8
1.7969799 0.37678194 0.65132976 13
1.9131515 0.26953387 0.78587866 10.5
2.5820642 0.25030732 0.65599585 9
3.1000535 0.31651378 0.69895262 9
1.8262911 0.43256688 0.61463857 12
2.4733245 0.49283874 0.7536509 10
3.6257823 0.56634843 0.79016519 6
3.9213657 0.4110285 0.66581416 6
1.7366593 0.65525341 0.7015276 14
3.2354162 0.78225422 0.62352097 11.5
3.6159396 0.69091463 0.72208297 7
3.8300278 0.7122429 0.66820955 8.5
2.2891467 0.8177129 0.6908133 13
3.5911601 0.8111304 0.64750206 8
3.6651232 0.94186854 0.68963772 8.25
3.5507267 1.0068681 0.64544261 9.333333
3.6453621 1.1027093 0.69818008 10
3.5200107 1.2916211 0.67318648 10.666667
3.6136189 1.2938609 0.71529818 9
3.4490607 1.6788795 0.68468022 13.75
3.30285 1.8144003 0.62366557 14
3.4029651 1.8072067 0.6663146 12
3.2687302 2.0770907 0.71345866 13.75
3.1464534 2.3749189 0.77416801 15
3.125071 2.4639332 0.73063922 15
-1.3013356 -1.6916933 0.93214703 12
-1.5485514 -1.4756675 0.89686942 8
-1.3711758 -1.5336726 0.96713877 7
-1.3247869 -0.8452574 0.94507742 5
-1.6885405 -0.65825659 0.89972687 9.75
-1.5004406 -0.74338984 0.97323465 8.5
-1.3750665 -0.75853539 0.80972219 6.5
-1.8193338 -0.4341743 0.81381893 10
-1.7107391 -0.52525759 0.919698 11
-1.8410604 -0.30881178 0.83463812 11
-1.7425011 -0.30391741 0.98302317 14
2.1137364 -0.21065378 0.993402 9
-1.9240103 -0.10941255 0.91137135 9.5
-1.946411 0.063269913 0.81828463 14.5
1.9268546 0.15392137 0.89383388 11
2.0219383 0.15254068 0.98283553 9
3.5967786 0.14359567 0.82201588 5
0.24688134 0.2937817 0.88838476 7.5
0.64912814 0.33981076 0.96393567 6.8333335
3.1759906 0.29709423 0.88983953 6
3.6871443 0.30309248 0.90857768 6
3.8480787 0.38614988 0.95415092 5
1.7955658 0.57020307 0.84480119 13
1.8433149 0.4513464 0.9596324 12
2.7316241 0.49205875 0.82779711 11
3.1622806 0.41022891 0.80722821 7
3.5441575 0.49019629 0.86449176 7.5
2.6701019 0.63911313 0.83991528 12.5
3.1252563 0.69481462 0.99070978 7
3.8661406 0.72438836 0.93882966 7.5
2.6598821 0.84682661 0.82806927 14.5
3.1181934 0.87592971 0.93344063 11.5
3.5246451 0.87462342 0.9526912 8
3.1001728 1.1133212 0.88766158 13.5
3.5045748 1.0083959 0.91210401 9
3.6573856 1.1413455 0.85309297 8.333333
3.073386 1.2914134 0.85337061 15
3.4672108 1.3183553 0.96844673 11
3.4687471 1.5386597 0.89127749 11.5
3.4052184 1.728117 0.84468675 14
3.3478913 1.8855348 0.90274036 14
3.4463792 1.8360623 0.94784188 11
3.3001616 2.0336785 0.93322992 13
3.1604681 2.3341196 0.8666749 15
3.2181702 2.2923288 0.8924346 14.5
0.040036708 -1.6147408 1.0932279 9
-1.5217876 -1.1546288 1.1597543 8
-1.5533947 -0.99983764 1.0116546 9.5
-1.5759282 -0.65616965 1.0668 11.5
-1.681416 -0.49165523 1.1679571 12.5
-1.6925288 -0.39344835 1.0861738 13
-1.9984314 0.1601826 1.0902681 14.5
0.95876008 0.19098938 1.1020379 5
3.599916 0.065706253 1.0949461 5
-0.47359371 0.29106906 1.0162915 9
0.93324643 0.37793687 1.0331318 8
1.9555416 0.277179 1.1081841 10.5
3.4395819 0.33712482 1.1668966 7
3.6139917 0.34115043 1.0823461 5
3.1775274 0.51674306 1.0944171 5.5
3.5894303 0.5758673 1.158252 5.5
2.6891057 0.67845988 1.048557 11
3.5324869 0.69548023 1.1091123 6.25
2.6544442 0.83429497 1.0693476 12.5
3.0096216 0.81269491 1.0412474 11
3.5244741 0.82373768 1.0960873 7
2.6205623 1.0401306 1.0533528 14.5
2.8995142 1.0836046 1.045933 13.5
3.1701403 1.0030222 1.1354225 7
3.5105789 1.0869564 1.0882021 9.5
3.7512326 1.1199808 1.0777524 8
2.8092346 1.2428907 1.0788704 15
3.0923669 1.2478667 1.1836735 13.5
3.5005956 1.3442581 1.1090848 10
3.6036849 1.2349154 1.1454298 8
3.0373859 1.4255475 1.1762426 15
3.5184364 1.4827338 1.156231 9.833333
3.3663673 1.7428292 1.0362558 14
3.4712329 1.7023669 1.0338745 10
3.3576927 1.9230162 1.1067653 12.666667
3.1889565 2.3345003 1.1294401 13
3.2924213 2.2018225 1.152961 13
3.1059275 2.5687511 1.0797131 14.833333
3.2268612 2.4127636 1.1014211 14
-1.2735341 -1.8738887 1.3340831 8
-1.3427773 -1.7574632 1.2057812 9
0.15311971 -1.6956053 1.234657 8
-1.2755984 -1.532794 1.3540072 11
-1.5603511 -0.85044599 1.2640347 9.5
-1.121644 -0.94421375 1.3722533 6.5
-1.6259623 -0.63634026 1.3212178 10.5
-1.5971162 -0.58366609 1.2658989 11
-1.9362037 -0.22978383 1.2880042 5.5
-1.7343795 -0.23540348 1.3260058 13.5
-1.8695583 -0.12858391 1.3330057 12.75
-1.9659801 0.020397186 1.2329121 12.5
2.0443482 0.17633915 1.3279393 9
0.26354241 0.31847176 1.2994883 7
0.55095756 0.32367933 1.3423481 6
3.5545616 0.24801803 1.3068378 6
3.528842 0.59692627 1.2972331 6.5
2.6718664 0.79283929 1.2915283 11
3.3510566 0.73617566 1.3389482 5.5
3.5761693 0.67107046 1.3618793 6
2.6783087 0.93488944 1.2686923 12.333333
3.0689681 0.99652314 1.2437651 11.5
3.2486296 0.8485316 1.2593443 5.5
3.5321469 0.85376048 1.2585511 7.5
3.8666992 0.88002741 1.3163216 7
2.6145988 1.1552393 1.2528687 14.5
3.152173 1.1069393 1.3461809 10.75
3.4802504 1.0846629 1.2976273 8.833333
3.5152659 1.3752499 1.346361 9.5
3.6632862 1.3167725 1.2576721 8
3.1146386 1.4326929 1.2666645 13.5
3.4297605 1.5891423 1.2988065 12.5
3.6083782 1.5253977 1.2705178 9
3.0838807 1.6183616 1.2471753 15
3.398849 1.7839441 1.2032219 14
3.4571474 1.7544633 1.3433037 9
3.3854337 1.9601785 1.3589771 10
3.4198341 1.866683 1.2296962 10.5
3.2618949 2.1322775 1.3430876 12.333333
3.1934276 2.2699883 1.2533821 15
3.2052202 2.3267741 1.3702831 12.75
3.1235318 2.4936628 1.2415974 14
3.0803089 2.6938839 1.3214264 14.5
-1.4160446 -1.4592333 1.444171 5
-1.3909395 -1.2454081 1.4142711 12
-1.0445492 -1.0115663 1.5008603 5
-1.4894575 -0.99315929 1.4076085 8
-1.5702198 -0.74289232 1.5056078 11.25
-1.8232076 -0.49480438 1.4543469 6.25
-1.6328673 -0.55746913 1.4512041 13.5
-1.8848796 -0.29039252 1.4063485 8.5
-1.7281139 -0.34551811 1.4856671 12
-1.8592834 -0.0575459 1.481566 15
-1.7654517 -0.095368862 1.5828454 13
3.5461214 0.58518279 1.410774 5
4.0954466 0.41364646 1.4269602 5
3.4847951 0.68746209 1.4969821 5
3.9366813 0.7699796 1.4642429 6
2.693279 0.90542793 1.5485926 11
2.8971341 0.9242487 1.4025631 11
3.1677046 0.88479614 1.5083975 7
3.2129359 0.99917746 1.4356295 5.5
3.4855702 0.9187746 1.5414848 6.875
2.8109283 1.1385908 1.4041851 13
3.1121178 1.0729777 1.4542351 7
3.3683503 1.1042292 1.4714677 7.75
3.8178263 1.116019 1.5194845 6
3.0034885 1.3208992 1.5899527 10
3.4909196 1.2088337 1.4845951 9.5
3.7021723 1.2382433 1.425384 7
2.9642305 1.4849985 1.5288062 11.5
3.4258111 1.496506 1.5791848 9
3.657707 1.4310462 1.4836962 8
2.9461899 1.7184279 1.4429781 13.5
3.3302741 1.787306 1.5463815 11
3.5567842 1.630972 1.4935412 8
2.8732924 1.8833534 1.4045522 15
3.3294055 1.9261166 1.5242461 10.5
3.4226809 1.9193461 1.5164976 10
3.2791963 2.1518078 1.5493231 11
3.2866335 2.291697 1.5095853 11.5
3.1291823 2.5214779 1.5499429 13
3.2199183 2.4882054 1.52455 12.5
3.0665088 2.6629715 1.4409795 14.25
3.044631 2.8760631 1.5847347 14.75
-1.5050626 -0.90468156 1.7860763 10.5
-1.2230663 -0.89088464 1.6396317 5.5
-1.6762909 -0.60827446 1.7373732 9
-1.4968277 -0.72774774 1.6589116 11
-1.3118392 -0.72217512 1.679912 7.5
-1.7070948 -0.52448153 1.6786155 10
-1.7122228 -0.31572205 1.709934 11
-1.8369312 -0.10034692 1.6865915 13.166667
-1.7289968 -0.17021537 1.6548429 12
-1.8998052 0.016288996 1.6126511 15
-2.2435999 0.45397288 1.7999746 12
-2.2292793 0.65685707 1.7840786 14
3.5618672 0.68586695 1.7164114 5.25
2.5981743 0.89996874 1.6306045 11
3.4749196 0.89174789 1.7318932 6.1666665
2.5427303 1.049696 1.6341161 12.5
3.0981903 1.1014845 1.7346907 6.75
3.3980722 1.0871933 1.6867982 8
3.4869409 1.0713205 1.6881464 8
3.8842835 1.0081152 1.650878 5
2.5387988 1.263213 1.6894608 13.5
3.0487549 1.2165649 1.6301732 9
3.424983 1.3602933 1.6385041 8
2.556798 1.4760448 1.7069702 14.5
3.3809998 1.6038901 1.6400363 9.5
3.5251663 1.7567745 1.7260128 8
2.9214864 1.940799 1.7517084 15
3.3670225 1.9816809 1.6799148 9
3.4695916 1.8237339 1.6484303 8.5
3.4369857 2.0470595 1.7568505 9
3.3188682 2.2439141 1.6497331 11
3.1737566 2.5012455 1.7118793 12.25
3.2702332 2.4603891 1.7697932 11.333333
3.1357536 2.6978352 1.6912273 13.333333
3.017894 2.9721384 1.799072 14
2.9658804 3.0921974 1.6844006 15
-1.4043263 -0.96719623 1.9315715 11
-1.1870306 -0.82474351 1.9036852 5
-1.262524 -0.7729013 1.840155 6
-1.6582234 -0.46842337 1.8910533 8.5
-1.2840656 -0.51444125 1.9976078 6.5
-1.7567194 -0.31289446 1.8320423 10.5
-1.7745684 -0.19782341 1.9232354 10.5
-2.2685099 0.15564716 1.9326526 9
-1.9148653 0.14109212 1.8609855 14.25
-2.257452 0.30498683 1.8466716 10.5
-1.9344453 0.32580292 1.9176298 15
-2.318505 0.55848062 1.9031014 12.75
0.05732394 0.42785689 1.8610929 14
0.22135141 0.52399921 1.9128542 7.5
0.61194921 0.57392901 1.9657307 6
-2.3080428 0.76665092 1.9020737 14.75
-0.27960843 0.70328248 1.9908655 13.5
0.59357309 0.65500957 1.8991263 8
3.4383693 0.71451545 1.8180053 5
2.6130676 0.87128472 1.849308 8.5
3.5235155 0.84674078 1.8493302 6
2.5697763 1.0666411 1.8162372 10.5
3.3811266 1.1751741 1.9185261 8
3.0100093 1.301827 1.9618781 9.5
2.4382002 1.583475 1.9173803 12.5
2.9675021 1.5258073 1.8856354 11.5
2.3670433 1.7804378 1.8827608 14.5
2.9572783 1.7641451 1.8058583 13.5
3.5721345 1.6080649 1.9389588 5.5
3.3767781 1.8973821 1.970179 8
3.5375133 1.8764257 1.8650445 8
2.8859713 2.0407078 1.9646165 15
3.3097463 2.0797064 1.9074459 9.333333
3.4310727 2.1744413 1.9827373 9
3.2119246 2.2755401 1.805033 11
3.1823049 2.5761771 1.8307487 12.5
3.2466619 2.4227061 1.9672059 11
3.2991316 2.6207371 1.8772001 11
3.1062706 2.8891363 1.893751 12.75
2.9810395 3.1640172 1.9408052 14
2.975925 3.2147617 1.9263344 15
2.8891902 3.403069 1.9806938 15
-1.4024388 -1.0279267 2.0163643 6
-1.516891 -0.76211047 2.0941794 9.5
-1.264344 -0.5499531 2.1080263 5.5
-1.6786604 -0.27678624 2.1077576 10.333333
-1.855904 -0.07877022 2.0698326 11.5
-1.6803405 -0.078077555 2.1747365 13
-2.4059401 0.17544901 2.1936288 8.5
-1.8262657 0.12578428 2.0577643 12.5
-2.429189 0.3249841 2.1289544 10
-1.9407995 0.37278664 2.1444237 14.25
-2.3938994 0.41274276 2.0316975 11
-2.3956795 0.77408922 2.1274211 14.5
-0.26433879 0.65421081 2.015379 12
0.32791746 0.67621779 2.1909122 8
3.4381616 0.7848286 2.0055249 5
0.63551438 0.82426608 2.1843433 8
3.4139428 0.99914372 2.0051577 6.5
2.997798 1.1281531 2.0223427 8
3.4551103 1.1930685 2.1532512 5
2.4493582 1.2949631 2.0427885 9.5
2.9920859 1.4674968 2.1597724 10
2.9284666 1.6299113 2.1110203 11.5
3.086005 1.6274209 2.0983865 7
2.842999 1.8553816 2.0731719 13.5
3.4201379 1.8307245 2.0953474 7
2.8985 2.0915532 2.1546614 14.5
3.3974178 2.069963 2.166306 8
3.4971828 2.0880105 2.1021225 8
3.3033347 2.3229046 2.132256 9.166666
3.263073 2.5187984 2.1348293 10
3.1614718 2.7163455 2.093739 11
3.2119927 2.7773907 2.1327996 11
2.5982251 2.9686346 2.094275 15
3.1281466 2.955889 2.125423 12.25
3.0313201 3.0668716 2.0177708 13.5
2.9169168 3.3174653 2.1169279 14
2.8596127 3.5341358 2.1140361 15
-1.4452159 -0.91793489 2.226213 8
-1.678973 -0.533638 2.2810216 6
-1.3673067 -0.42937064 2.2715492 5.5
-1.7359662 -0.33335382 2.3012114 7.5
-1.5669712 -0.33190742 2.3331296 11.666667
-1.6965679 -0.090360165 2.2767596 11
-1.9065773 0.30884957 2.300355 12.75
-0.13943565 0.24928543 2.2710369 9
-2.4416928 0.42825341 2.3828554 10.5
-1.9978985 0.56434858 2.3411222 15
-2.4557798 0.60044754 2.2311201 12.5
0.67239702 0.75572306 2.2503157 6
-2.4427133 0.92389107 2.3789597 15
-2.3211801 0.88257295 2.3516579 15
2.9963441 1.3004327 2.2314639 8.5
2.4380336 1.4159946 2.3662245 10.5
3.1497967 1.4789484 2.2381186 5.5
2.4363205 1.6151385 2.2925665 12.5
2.9646902 1.6822617 2.3536859 10.75
2.3694794 1.8135378 2.2621162 14.5
2.948998 1.9326963 2.2323256 13
3.4624071 1.9108683 2.3377206 6
3.3529992 2.065228 2.2276127 7
2.8441486 2.285244 2.3371644 12.5
3.2974217 2.2993467 2.2683823 8
2.792628 2.4944088 2.2047033 14.5
2.7430267 2.6469216 2.3481841 11.5
2.6476393 2.8262587 2.2145815 13.5
3.1749234 2.844903 2.3308272 11
2.5585494 3.0921803 2.3454857 15
3.0153968 3.1923852 2.2608132 12.5
3.0097213 3.3414249 2.3874781 12.5
2.9190533 3.4591932 2.2281225 14
-1.4300621 -0.89757919 2.4335768 6
-1.4828821 -0.41871047 2.4634063 11
-1.7571156 -0.057314098 2.4514623 8.5
-2.346751 0.17637219 2.4267688 9
-1.8737358 0.15060997 2.414737 10.5
-1.6782601 0.0019264221 2.4596844 12
-2.4255021 0.23706369 2.4682076 8.5
-1.803849 0.23568773 2.5024922 12.5
-1.9172399 0.44205618 2.5174856 13.5
-0.15092364 0.42535156 2.541748 9
-2.442183 0.9108668 2.5440171 14.5
-0.25886211 0.94814444 2.5906277 13
0.26136208 0.84842753 2.504431 8
0.46920511 0.93267155 2.5622296 7
2.4488087 1.2281595 2.4488058 8.5
2.4376462 1.5565304 2.5760643 10.5
2.9902029 1.4418851 2.4718368 8.5
3.3721306 1.5039232 2.474102 5.75
2.3824561 1.7537781 2.5370243 12.5
3.3159194 1.7226192 2.5270784 7
2.3500473 1.9471514 2.460541 14.5
2.9111328 1.9370308 2.5813513 9
3.4398365 1.8295703 2.5026538 5
2.4216042 2.0926552 2.5765834 14.5
2.8865829 2.0787911 2.4680541 10.5
2.888474 2.3441691 2.5970817 8
2.8457026 2.478287 2.4836879 9.5
3.315474 2.5185158 2.470335 8.5
2.3799133 2.7953959 2.5220926 13
3.232944 2.7516055 2.4973483 9.25
2.6393752 2.9540899 2.442358 13.5
3.1750226 2.9616137 2.5824742 9.5
3.0910695 3.0644121 2.4169452 11
2.6437399 3.2399306 2.4803486 15
3.0783877 3.2218747 2.5570319 11
-1.3735375 -1.1017253 2.641288 4
-1.6483132 -0.087729692 2.7231774 8.5
-2.4603457 0.1129621 2.7241116 7
-1.8048804 0.17529392 2.7758961 8.5
-1.7050618 0.062418062 2.6315742 10.666667
-2.4509208 0.21939225 2.6917093 8
-1.8773023 0.31371903 2.6809983 10.5
-1.7838655 0.32934952 2.7046597 13
-2.4514174 0.534751 2.6990247 10.5
-2.4671879 0.70119238 2.6556852 12.333333
-1.9401587 0.61259609 2.7058268 15
-2.5117154 0.83182895 2.775362 14
-0.2480318 0.91662312 2.6084709 12
0.25928771 1.0687699 2.7235637 8
0.61332124 1.1364008 2.7752738 6
0.59138393 1.2060101 2.7021785 8
2.4459751 1.3758681 2.6759543 8.5
2.4662664 1.7172245 2.768966 10.5
2.4230068 1.9110725 2.7043402 12.5
2.9282022 1.8301882 2.6341798 8
3.350246 2.080662 2.7950323 5
3.3536279 2.3332968 2.7556999 6.3333335
3.424753 2.3612752 2.7790096 6
2.2236428 2.5061574 2.7562587 14.5
2.8129826 2.5709732 2.7945752 9
3.3097057 2.4676368 2.6771829 7.3333335
2.2025266 2.7926745 2.7587669 12.5
2.7326181 2.7164869 2.6675987 10.75
3.2913561 2.6879978 2.6881223 7.5
2.1139045 2.940232 2.6410673 14.5
2.7795579 2.9340258 2.7604074 11.5
3.2068746 2.9565578 2.6763813 9
2.710182 3.112474 2.601706 13.5
3.1484098 3.1480942 2.6544068 10
2.6481116 3.3282964 2.7791467 13
2.5106001 3.4688697 2.7418554 14.5
2.5644982 3.687871 2.7702579 15
-1.5405532 -0.10910201 2.8750997 6
-1.3609354 -0.049510002 2.9067557 8
-2.4424942 0.19667853 2.8631611 9
-2.0952704 0.063212618 2.9668329 8
-1.7275901 0.1214869 2.8674161 10.5
-2.4477139 0.34378788 2.8528435 9.25
-1.0067954 0.38486344 2.979243 11
-2.4786754 0.54659605 2.8902793 11.25
-1.8853043 0.52931088 2.8197215 13.5
-2.4709592 0.71623915 2.8676996 12.75
-1.0184305 0.67107093 2.9990737 13.5
-2.4335523 0.86696136 2.8738811 14
-2.437994 1.0078415 2.8781037 15
-0.20498528 1.0744486 2.9083323 9
0.54980361 1.3644724 2.9895785 6.1999998
0.57447278 1.4323013 2.9048467 8
2.4985795 1.5416938 2.866076 8.5
2.5249851 1.9904876 2.8815274 9
2.3236797 2.1528654 2.953562 10.5
3.3871264 2.1793051 2.9098127 5
2.3016088 2.3223648 2.8278465 12.5
3.3230495 2.3469541 2.858357 5.75
2.3734159 2.4884992 2.977222 8.5
2.8316641 2.4816885 2.8752 8
3.4412875 2.5931845 2.9263506 5.5
2.2631559 2.6472046 2.8941448 10.5
2.886096 2.7264905 2.9511933 9
3.2868478 2.7211187 2.8672028 7.5
2.2272487 2.9326234 2.9407475 12.5
2.847225 2.8078816 2.8716013 10
3.1794481 2.8785236 2.9479799 8
3.2640765 2.8730927 2.8698895 7.5
2.1064148 3.0780983 2.8416996 14.5
2.7161138 3.2025957 2.8943324 11.5
2.2585855 3.5364246 2.958672 15
2.6171446 3.5620904 2.9103966 13.5
2.5345521 3.7869534 2.9677582 13.5
2.4646285 3.9008026 2.8315775 15
2.4149249 4.1150823 2.9601746 15
-1.2829432 -0.052399874 3.0830832 5.5
-1.6375107 0.053674083 3.0534952 7.5
-1.4525684 0.17731424 3.0673583 9
-0.3435874 0.16307886 3.102241 9
-0.11002449 0.16548631 3.1648512 9
-2.6017435 0.32850388 3.1292176 9
-2.474335 0.31309137 3.0630147 7.8333335
-1.8180616 0.39775181 3.0015233 10.5
-1.7514786 0.33111656 3.1003158 10.5
-1.3801638 0.29371485 3.0718949 10
-0.94137335 0.33273175 3.0292239 10.5
-0.38785166 0.2703571 3.0753875 10
-0.088411525 0.33168739 3.1618798 10.5
-2.6077044 0.45995757 3.1194568 10
-2.5513601 0.49684563 3.0619276 10
-1.3757652 0.4699479 3.0556905 11.5
-1.0225098 0.50215465 3.0119534 12
-2.5812609 0.65841317 3.1139135 11.5
-1.907625 0.70410967 3.0988488 14.25
-1.3713845 0.70531988 3.0332718 13.5
-0.25072688 0.61479479 3.1781111 9
-2.6038904 0.99848735 3.0963717 14
-2.5999093 0.86247289 3.1089096 13
-1.4342055 0.90172559 3.05603 15
-1.0003916 0.84633833 3.0068126 15
-0.44229656 0.83909136 3.1098604 15
0.032986037 0.8520323 3.188503 15
-2.6084647 1.1367865 3.0842924 15
-2.4664712 1.0326518 3.1589572 12.5
-2.6126783 1.3597932 3.1575975 14.5
-2.4825528 1.2277235 3.0970805 14.5
2.3705857 1.992595 3.0674751 8.5
3.376087 2.4910073 3.0079567 5.5
2.2224722 2.7931867 3.131794 10.5
2.8845913 2.6474948 3.053823 8
3.2550859 2.6994724 3.0254502 6.5
3.4210579 2.7807772 3.0988631 5.5
2.786706 2.9673905 3.1741765 8.5
2.2957599 3.1063471 3.1207168 12.5
2.7090049 3.0998268 3.0833945 10
2.168112 3.2675068 3.0437233 14.5
2.6916902 3.400418 3.0853028 11.5
2.6363325 3.6443546 3.1392198 11.5
2.4724455 4.0061269 3.1104226 13.5
-1.2021623 -0.077558994 3.2308297 4
-1.6313639 0.013157606 3.2497425 6
-2.5354395 0.29024202 3.352653 7.5
-2.2902551 0.21004064 3.2190089 8
-1.8156164 0.22520408 3.2837987 8
-1.6828259 0.27011538 3.2505398 10.5
-1.5430063 0.35532036 3.3534412 9
-1.8151658 0.57286823 3.3517261 10.5
-1.5494044 0.47557238 3.3611641 10
-1.1393315 0.54459453 3.268856 10.75
-0.54429209 0.48054075 3.3576474 10
-0.2144807 0.59304559 3.220396 8.5
-2.6449149 0.78572834 3.3571618 11.5
-2.4491885 0.66994369 3.3577166 8.5
-1.8992119 0.66103959 3.207746 12.5
-1.6343415 0.71529031 3.3327265 12
-1.5372856 0.64561498 3.3039927 11.5
-1.1842614 0.68283099 3.2482643 12
-2.6645839 0.99003112 3.3440557 13
-2.4774559 0.84839487 3.248487 10.5
-1.9211676 0.86145461 3.2864494 14.75
-1.5417924 0.88061279 3.2731688 13.5
-1.1904076 0.85408127 3.238492 13.5
-0.21182586 0.95835698 3.3386624 9.5
-0.19577901 0.86673272 3.3863094 8
-2.662307 1.1187156 3.3059433 14
-2.597522 1.0725961 3.3629646 11
-1.527445 1.0644816 3.2658496 15
-1.1744643 1.0292509 3.233449 15
-2.6385527 1.2321446 3.2972794 13.75
0.25220004 1.4519279 3.2449374 8
0.53492451 1.5616963 3.3362653 5.5
0.55189329 1.7013638 3.3858557 6.5
2.2884445 2.6534505 3.2637486 8.5
2.3146789 2.9649141 3.2930753 10.5
3.3465395 2.9923379 3.3586285 5
2.1614594 3.3772967 3.3365908 12.5
2.6099591 3.3326993 3.3455148 10
3.2044642 3.2655027 3.3848586 6.5
2.0767756 3.5246637 3.2135296 14.5
2.7065089 3.5445316 3.2750397 10
3.1036096 3.4931955 3.2918878 8
2.0475962 3.7312932 3.3660698 14.5
2.5618699 3.8736136 3.2961478 11.5
-2.3048863 0.36395863 3.5053957 8
-1.6631924 0.26164997 3.5555618 6.75
-0.45237386 0.38011104 3.4134092 9
-0.32772511 0.27375534 3.4160123 8
-2.6268182 0.5266099 3.4063401 9.5
-1.8361315 0.40998593 3.5879354 8
-1.7631845 0.43210697 3.4579628 8.5
-2.4605589 0.67316407 3.5762267 8
-1.5717283 0.66497773 3.5812016 10
-1.2224312 0.77978534 3.5172322 11
-1.1410357 0.74101484 3.5749912 10.5
-0.17047608 0.67647904 3.4601159 11.5
-2.5823364 0.88666201 3.5698161 8.5
-1.8588215 0.8397845 3.5530896 12.5
-1.6772656 0.90800035 3.5808446 12
-1.5813936 0.84308547 3.5652604 11.5
-1.2423997 0.8980276 3.5253122 12
-0.16704912 0.90564489 3.4434438 13.5
-2.6229422 1.0113006 3.4776196 10
-1.5684699 1.0723941 3.5090306 13.5
-1.2425818 1.0588777 3.4739127 13.5
-0.70199347 1.1543356 3.5358603 14
-0.59816521 1.0564651 3.5769873 13
-0.16409886 1.0847747 3.4401503 15
-1.5811455 1.2497518 3.4723887 15
-1.2565136 1.2352595 3.4569259 15
-2.6952393 1.4227766 3.5993607 15
-0.31901073 1.4032891 3.4072599 11.5
0.24688113 1.5944419 3.4753327 7
-0.28301471 1.7459856 3.5316877 13.5
0.63952982 1.7261472 3.4481931 6
2.408792 2.8186281 3.4036827 8.5
3.2791202 3.1070728 3.4733164 5
2.2122307 3.2461491 3.4935834 10.5
2.7120206 3.2060213 3.4247561 8.5
2.1495507 3.5965233 3.4895446 12.5
2.7602401 3.4328752 3.4078264 8.5
3.1664748 3.4389234 3.4823096 6.5
2.6733112 3.7323346 3.4946094 9.25
1.9764414 3.9825907 3.4382405 14.5
2.0789318 3.8452375 3.5615544 12.5
1.9437335 4.2047968 3.5276368 14.5
-1.6054838 0.29061913 3.7110004 7
-2.5014496 0.56511307 3.6139116 7
-1.7337232 0.42023349 3.6847763 5.5
-1.562043 0.55015635 3.6014423 9
-0.48584229 0.57233059 3.6402974 8.5
-2.6372557 0.69276381 3.7384515 9.5
-1.7867918 0.74666655 3.6950774 10.5
-0.57598937 0.72679514 3.6168418 10
-2.6487105 0.95100099 3.6818979 11.5
-2.5945716 0.91348422 3.7793918 8
-0.73287958 0.95995194 3.6614845 12
-0.18224742 0.89349282 3.7094018 11
-2.6705918 1.1518278 3.6524732 13
-1.2222217 1.1948552 3.7723944 13
-0.1907514 1.091156 3.6805325 12.75
-2.6741741 1.2836182 3.63801 13.833333
-1.245863 1.3100675 3.7567153 14
-0.58695459 1.3216805 3.6096683 10.5
-0.21531269 1.3520565 3.6469648 15
-2.6437652 1.4983275 3.6323428 14.5
-1.6092839 1.4372467 3.7569394 15
-1.2281078 1.4250953 3.7337093 15
-0.23462251 1.663239 3.6249306 10
-0.29118386 1.9445493 3.7625625 14
0.2995964 1.8719292 3.7645319 7
0.52360797 1.985723 3.6612537 8
0.63655722 1.9373386 3.7076941 6
2.2872806 3.1088276 3.6208646 8.5
2.331562 3.3222089 3.7393785 8.5
2.2444112 3.4536824 3.6076529 10.5
2.1419787 3.7348032 3.7273371 10.5
2.0343797 4.0984459 3.6825271 12.5
-2.2927916 0.54440683 3.8513813 8
-1.8313289 0.59601152 3.9022377 8
-1.6598951 0.53190041 3.9589539 6.5
-1.7379032 0.62461472 3.82377 8.5
-1.5749149 0.75423741 3.9632909 9
-0.47797596 0.78648496 3.951225 8.5
-2.6782913 0.87005234 3.9100208 9.25
-2.595006 0.96413535 3.942502 8.5
-1.5692279 0.85937601 3.8995326 10
-1.2264776 0.97198486 3.8136647 11
-1.1498467 0.87097269 3.8460453 10
-0.58423042 0.93358988 3.9067972 10
-0.24525604 0.9906531 3.9925895 10
-2.6938672 1.1322962 3.8940976 11.75
-1.5873178 1.0309525 3.8590033 11.5
-1.2412783 1.091175 3.8176847 12
-0.90711319 1.1369491 3.8916957 12
-0.19212872 1.1119822 3.9881413 11
-2.803673 1.3987699 3.9144993 15
-2.7870018 1.2628481 3.9413323 14
-1.671797 1.269714 3.8222797 13.5
-0.93022585 1.2402166 3.8509433 13
-0.32122472 1.3263203 3.9383204 10.5
-0.18235686 1.2279375 3.9740531 12
-2.6148434 1.5033627 3.8804398 13.25
-0.63378704 1.4853504 3.8086631 15
-0.40807334 1.4103665 3.8698273 11
-0.22080508 1.5681133 3.9022439 15
-2.6516497 1.6647735 3.8765361 14.666667
-0.21765198 1.8653986 3.8917675 9.666667
2.2110093 3.6145477 3.875567 8.5
2.1484466 3.9306536 3.9133668 9.5
2.9727685 3.9863446 3.9956508 7
-2.4143157 0.52431512 4.1739445 8
-2.7302105 0.66761094 4.0384531 9.5
-2.6066537 0.97761345 4.1513648 8
-1.2909204 0.91770488 4.1512041 10.5
-0.25438559 0.87849462 4.0072308 9
-1.6919152 1.0182942 4.1725163 11.5
-1.3464292 1.0839764 4.1339216 12
-2.6161633 1.3483574 4.1672916 10
-1.7008767 1.2748909 4.1044893 13.75
-1.3524411 1.2430581 4.0787253 13.5
-2.6885064 1.4964304 4.160543 13
-2.596225 1.407716 4.0543494 11
-1.6553102 1.4431118 4.1180463 15
-1.3724977 1.4183499 4.0575333 15
-0.39874345 1.5451734 4.1856441 9
-2.7159383 1.6973333 4.1133671 14.5
-2.8995669 1.9057968 4.1965203 14
-2.9199853 2.0379205 4.153398 15
-2.6019671 2.0310533 4.1640797 14.5
3.1033995 3.8952928 4.1284838 5.5
-1.8941008 0.58454311 4.2120566 8
-1.6671762 0.72957766 4.223496 9
-0.60291779 0.79283094 4.2939515 8.5
-0.45238692 0.75927496 4.3219638 8
-2.6142032 0.93249822 4.2520237 8
-1.6812706 0.84340596 4.2010713 10
-0.69286406 0.94421494 4.2586088 10
-2.6347604 1.1124916 4.2654715 10
-0.30090883 1.1161973 4.3090439 11
-2.6525044 1.3010049 4.2066293 11.5
-2.5796955 1.2163708 4.2414947 8.5
-1.6300528 1.2253507 4.3988605 10
-1.2401068 1.3450933 4.3103943 11
-1.1521955 1.3153938 4.3693271 10.5
-0.29469317 1.2943234 4.3018212 12.5
-2.8421247 1.5976402 4.323432 11.5
-1.6177347 1.4879682 4.3401008 12.25
-1.2600611 1.4582955 4.2968798 12
-0.29590911 1.5235388 4.2558556 14.5
-2.8782177 1.78249 4.2500815 13
-2.5681674 1.7172792 4.3343897 11
-1.7015984 1.6956984 4.2988558 14
-1.274514 1.6208265 4.2490506 13.5
-2.8015492 1.8862042 4.2379551 15
-2.6454031 1.9989033 4.3463111 14
-2.5854638 1.8482313 4.2591715 12.5
-1.8912681 1.9992721 4.3922443 13.5
-1.7126788 1.811473 4.2595315 15
-1.3058219 1.8007761 4.2287869 15
-0.29798737 1.9290705 4.3574452 13.5
-1.8370984 2.1627183 4.3072109 15
-1.4900239 2.0860319 4.3090696 14.25
-0.75963306 2.1964226 4.3820314 14
-0.28994095 2.0163116 4.2183599 12.5
-2.6536243 2.2572794 4.3768544 15
-2.3141823 0.90888965 4.4014277 8
-1.9168243 0.96468222 4.4519 8
-1.5867475 1.1291933 4.4738178 9
-2.6845963 1.2685702 4.4405584 8.5
-2.4740634 1.251277 4.5624471 8
-2.2378218 1.2777911 4.5300484 8
-2.0642078 1.3286085 4.5827012 8
-0.60148549 1.3232288 4.4063821 10
-0.4990238 1.2409534 4.4722414 9
-2.799444 1.4186996 4.4017768 10
-2.5464416 1.545759 4.5456438 8.5
-1.7540439 1.5132608 4.5915036 9
-0.2106557 1.5030711 4.4551978 11
-2.5937486 1.6561828 4.4346681 10
-1.7702243 1.6620215 4.4978456 10.5
-1.4246227 1.7359757 4.4255424 11
-0.72762227 1.6992116 4.5606718 9.25
-0.23238105 1.6826053 4.4497938 12.5
-2.654351 1.9281898 4.4977736 12.5
-1.8819118 1.8447421 4.48564 12
-1.4484947 1.8545331 4.4139414 12
-0.33691323 1.865399 4.4374785 9
-2.8932896 2.0836239 4.5887194 15
-2.6365762 2.2115645 4.5022058 14.5
-0.44892305 2.3042932 4.4906273 12.75
-0.46638191 2.4076705 4.4078965 15
-0.47475743 2.7237616 4.5474281 11.5
-2.565232 1.596755 4.7600398 8
-2.8235118 1.6369076 4.7403746 11.5
-2.6389232 1.786207 4.7312636 10
-0.45056897 1.7492579 4.6302176 9
-2.8707719 1.8938524 4.6629696 13.5
-2.6781828 1.8288684 4.6744986 11.25
-1.457642 1.9520011 4.793395 13
-0.42830727 1.8666344 4.6075697 10
-2.6379161 2.108356 4.6836653 12.5
-1.963118 2.1887162 4.7813025 15
-1.7765541 2.1132591 4.7614231 14.5
-1.4392366 2.1138396 4.7302189 14.5
-0.43040115 2.1738958 4.6649771 8.75
-0.38968843 2.2073388 4.6639895 9
-2.6748223 2.4256539 4.7095461 14
-0.42316988 2.6245019 4.6787128 9
-0.49743664 2.9699636 4.7236509 11.666666
-2.7945395 1.319716 4.8313055 9
-2.4462824 1.2702863 4.9574423 8
-1.9664975 1.3489537 4.9932861 8
-2.8047395 1.4495091 4.8037167 10
-2.5647695 1.4964139 4.8053761 7
-1.7384623 1.504632 4.9898682 9
-2.5681453 1.6833138 4.8339019 8.5
-1.7541487 1.6616819 4.9121218 10.5
-1.4124846 1.727318 4.8368087 11
-1.3389484 1.6426506 4.9017868 10
-0.72898859 1.69058 4.9656334 9.5
-2.821476 1.9456493 4.976862 11.5
-1.8056467 1.9624722 4.8627949 13
-1.7816538 1.8282192 4.8576889 12
-1.4407641 1.845243 4.8301039 12
-0.92902792 1.9594862 4.9437666 12
-2.8581693 2.1356926 4.910521 13
-2.5734696 2.0318973 4.8773422 10.5
-1.8838029 2.0650601 4.8072567 14
-0.4632099 2.1884036 4.8882046 13.5
-2.8739448 2.3298366 4.8403053 14.5
-2.68085 2.3872952 4.8076077 13
-1.7797165 2.3593338 4.9585953 14
-1.4424095 2.3307991 4.9796057 13.5
-0.48001236 2.3653357 4.8512754 15
-2.7265158 2.4446287 4.9094973 13
-1.8853779 2.5036807 4.963254 15
-1.469769 2.4893827 4.910552 15
-0.46684772 2.913022 4.8885355 9.25
-2.8083692 1.7734412 5.0746326 10
-2.7739604 1.6478715 5.1108842 9
-2.583117 1.7172998 5.0933771 7.5
-2.5095997 1.9383883 5.0606542 8.5
-1.7333002 1.9529589 5.1890707 10
-2.5622678 2.1219177 5.0383945 10
-1.7582541 2.1111593 5.1139112 11.5
-1.4088583 2.1670814 5.0320468 12
-1.2963145 2.1424997 5.0777702 11.5
-0.73035622 2.0906994 5.1823483 10
-2.6340501 2.3425827 5.0964489 10.5
-1.7752707 2.2665002 5.0316887 13
-0.49510819 2.3604722 5.1383367 12
-2.7918272 2.5135336 5.1324348 13
-0.52324122 2.5181391 5.0753241 13.5
-2.8323467 2.6997819 5.0453691 14.5
-2.7839651 2.6630287 5.1418037 13
-2.5898137 2.7559319 5.09833 13.25
-1.396368 2.7038598 5.166326 13.5
-0.54824615 2.6809211 5.0115671 15
-1.8422005 2.8814611 5.1468949 15
-1.4261291 2.8662546 5.0967321 15
-0.48183423 2.9320338 5.1945424 14
-0.50502199 3.0459375 5.1557469 15
-1.646504 3.5399766 5.189414 15
-0.87149489 3.7301631 5.1887598 14
-0.77882224 3.9165583 5.1335731 15
-2.4514105 1.5971533 5.2155142 8
-2.076859 1.6538827 5.215354 8
-2.5029936 1.9319019 5.3024416 7
-1.7940936 1.8401121 5.2447848 9
-2.7166982 2.1056056 5.3460712 9.5
-2.5239916 2.0244012 5.2443638 8
-0.64341366 2.0095906 5.2400784 9
-2.7608223 2.3382642 5.2265635 11.5
-2.593502 2.266777 5.3032575 8.5
-1.7096381 2.494657 5.3174801 11.5
-1.3573571 2.5012364 5.265029 11.5
-0.68645704 2.4733458 5.3730745 10
-2.9121058 2.6904864 5.3730431 13
-2.538219 2.6660976 5.3082361 11
-1.8021789 2.7052639 5.2149701 13.5
-0.86212593 2.6791427 5.3210821 12
-2.9394989 2.8616982 5.2635441 14.5
-1.5056851 2.9930022 5.3294106 13.5
-3.0220871 3.1652913 5.2719269 15
-2.9570208 3.0580597 5.3474941 14
-2.6683683 3.0690129 5.3301315 14
-1.9261055 3.0737467 5.3344059 14.5
-1.5560484 3.1344485 5.2387218 15
-1.2984536 3.0295355 5.3978519 13
-1.9973375 3.3999543 5.3453512 14
-1.5399683 3.3345575 5.3668718 12.5
-0.62995815 3.3193674 5.3320961 14
-1.9821427 3.4841909 5.2492733 15
-1.5967972 3.4466257 5.2519202 14
-0.64772093 3.4192972 5.271431 15
-0.51728606 3.7577605 5.3279052 11.5
-1.699389 3.839978 5.3614883 15
-0.74059105 3.8318276 5.2063885 14
-0.80461824 4.1961107 5.2912874 15
-0.76397115 4.1117535 5.3641868 14
-2.3975999 2.007648 5.4910021 8
-1.9202206 2.0942492 5.5106544 8
-2.8092535 2.3609798 5.5820618 10
-2.6372385 2.3362157 5.4594302 9
-2.5868287 2.3235581 5.5200105 7.5
-1.715682 2.2914448 5.4403524 9.5
-0.54294932 2.3529639 5.4516907 8.5
-2.8499467 2.5182207 5.4676695 11.5
-2.8283281 2.7593994 5.590826 11
-2.5355682 2.6270053 5.4872909 9.5
-1.8609183 2.7279582 5.5672102 11
-1.4427805 2.7630949 5.4815149 11
-2.898762 2.8876927 5.4544439 12.5
-2.6132836 2.9250958 5.4668875 12.5
-2.5551908 2.8310776 5.5719304 11
-1.8309021 2.8677154 5.445766 12.5
-1.4738991 2.8597894 5.4292054 12
-0.80615973 2.8478041 5.5479126 10
-1.8411235 3.1962247 5.5220499 11.5
-1.395216 3.1618366 5.5444341 10
-3.0297146 3.3890529 5.5281038 14
-1.8968538 3.317687 5.4050498 13
-1.4729806 3.2064383 5.4613056 11
-0.84708494 3.3520632 5.4671106 10
-0.77281678 3.3100977 5.5500979 9
-3.0787349 3.483979 5.4374886 15
-2.7316129 3.4097431 5.4936352 14.5
-1.5708977 3.5876887 5.5718441 12
-0.94761801 3.4809294 5.4736977 11
-2.018832 3.7967796 5.4184341 15
-1.9683807 3.7015958 5.4880877 14
-1.6539599 3.7507663 5.4302745 14
-1.5885442 3.6722379 5.4966469 13
-1.2634183 3.700325 5.5464091 12
-0.4317871 3.6417298 5.5218844 8
-1.1362977 3.8941302 5.4980717 13
-0.69448823 4.4678397 5.5469618 15
-2.7579837 2.2441559 5.6312857 9
-2.4532557 2.2454278 5.7495384 8
-2.0657706 2.3445275 5.7357893 8
-1.7394211 2.5454397 5.6832819 9
-2.7278264 2.6458299 5.7249146 9.5
-2.4840472 2.6257229 5.6965437 8
-1.7658539 2.6371889 5.6156206 10
-0.68472481 2.7852888 5.6041274 9
-2.5427709 2.828824 5.708499 10
-1.7410349 2.9986043 5.7152977 9
-2.914443 3.151453 5.7434616 11.5
-2.6017981 3.1325419 5.7817006 10.5
-1.7892252 3.0875864 5.6518469 10
-2.9819574 3.2873008 5.6106358 13
-2.6683526 3.2449884 5.6487694 12.75
-2.6767092 3.4745512 5.6946144 13.5
-1.9040039 3.5113001 5.7043066 11.5
-1.486118 3.4864202 5.6806955 10.5
-2.0196738 3.6290107 5.6014242 13
-0.86805701 3.6297698 5.6963558 9.5
-0.65096986 3.68155 5.722724 9
-2.9487498 3.8107944 5.7194738 15
-2.7028759 3.8157916 5.7326674 14.5
-1.8631587 3.9994044 5.7582703 14
-1.4518154 3.9865596 5.769958 13
-1.9087901 4.0903411 5.6844382 15
-1.5081 4.1011362 5.6533732 14.5
-0.67646229 4.3831992 5.6283631 14
-0.90305901 4.6298466 5.7965083 15
-0.76050079 4.6757641 5.767313 15
-0.78430176 5.015419 5.7565112 15
-2.4914937 2.7459188 5.8320093 8.5
-2.395555 2.6376703 5.8507843 8
-2.0879316 2.7552266 5.8171253 8
-2.7883668 2.9278331 5.9543734 9
-2.8477926 3.0256605 5.8826065 10
-2.5231097 3.0457613 5.9550495 8.5
-2.0821557 3.1052532 5.9949999 8
-2.5990562 3.378011 5.916882 11
-1.8312051 3.3617315 5.8710341 9.5
-2.8843656 3.6672966 5.8548074 13.5
-2.6914818 3.7393365 5.8626285 13
-1.3473855 3.7982438 5.9535618 10.5
-2.9160082 3.9607739 5.8067975 15
-1.8943707 3.9305522 5.8685403 13
-1.4116516 3.9043622 5.8397489 12
-0.69406897 3.9280977 5.9465694 9.5
-2.8234539 4.1840081 5.8775864 15
-0.84055668 4.0099382 5.8528147 11
-1.9252726 4.2981253 5.9383144 15
-1.5135099 4.3240256 5.8970647 14.5
-1.6014761 4.5373344 5.9979191 13.5
-0.84624636 4.4930601 5.8991876 13.5
-0.66573858 4.5027056 5.9365873 12.75
-2.1000175 4.6110449 5.9813476 15
-1.6617643 4.6427975 5.8732443 15
-1.6780789 4.9099422 5.9754181 15
-0.71918869 4.9060888 5.8774261 13.5
-0.6617403 5.3519411 5.844377 14.5
-0.72797823 5.7104187 5.8864017 14.25
-2.4658995 2.9691815 6.0397797 8
-2.5528722 3.1597943 6.1410193 8
-2.7268684 3.346581 6.1606207 10
