# .PCD v0.7 - Point Cloud Data file format
VERSION 0.7
FIELDS x y z intensity
SIZE 4 4 4 4
TYPE F F F F
COUNT 1 1 1 1
WIDTH 193
HEIGHT 1
VIEWPOINT 0 0 0 1 0 0 0
POINTS 193
DATA ascii
-0.4811134 0.35473314 -6.7418447 9.0019999
-0.46287945 1.0571842 -6.6489749 12.002
-0.46222028 1.3055153 -6.6906123 13.002
-0.34966758 1.368921 -6.4197674 13.5015
-0.14407329 0.16626914 -5.6882749 8.3339996
-0.18260491 1.1104131 -5.7057838 13
-0.0091830418 0.2933954 -5.5882444 9
0.28200039 0.17428139 -5.5262828 8.5785007
1.5019702 0.10118905 -5.5878606 8.1724997
-0.93830413 0.66370046 -5.3140802 11.005
-0.93674725 0.90814275 -5.3037086 12.279334
0.13055293 0.96924508 -5.5756788 12.506001
0.94866443 0.97450626 -5.4342055 12.58725
1.464818 1.1015403 -5.4621406 13.172501
1.8572714 1.1110809 -5.3933024 13.1705
2.2186527 1.0732338 -5.3359218 12.834499
2.5998964 1.1551577 -5.3315749 13.167
2.8372428 1.1772915 -5.3384676 13.166
-0.91439152 1.2568016 -5.3598223 14.002251
0.19978717 1.2858201 -5.5556765 14.179
0.77879679 1.2862701 -5.5060267 14.176
0.90727431 1.2756599 -5.442472 14.058167
1.565035 1.3096651 -5.4412351 14.172
1.8746088 1.3294607 -5.4322853 14.1705
2.3174996 1.3364342 -5.2956352 14.084
2.5774999 1.3582544 -5.2762699 14.167
-1.0968547 0.18295026 -5.1189246 8.5059996
-1.0435681 0.6212936 -4.9597988 11.003
-0.9988004 1.0438325 -4.9508724 13.336083
4.2469368 1.0490496 -5.0687532 12.16
4.2725277 1.4362736 -4.9775596 13.826333
4.6137848 1.3916917 -4.8988938 13.491668
4.5126462 1.8091452 -5.0080633 15.159
3.7839999 0.31548119 -4.6679463 9.1604996
-1.0861897 0.61559498 -4.5344892 11.2535
2.6105299 0.64273894 -4.5312657 11
3.7737784 0.63036728 -4.6470151 10.6605
-1.0644006 1.0112088 -4.6313567 13.5
2.6247349 0.9290756 -4.5533657 12.5825
4.5902939 1.0130696 -4.4467049 12
2.6118307 1.2079872 -4.5211549 14.165
4.5916448 1.3205036 -4.4423141 13.333333
4.600738 1.7154527 -4.444375 15
2.5658772 0.26115644 -4.2589564 9.1645002
3.725008 0.20355611 -4.1767945 8.5333338
4.0410643 0.24888065 -4.0075636 8.75
4.495863 0.31642324 -4.0220704 9
-1.1429367 0.61623204 -4.2274337 11.5
2.5407064 0.50837922 -4.1142859 10.554833
3.8167622 0.52737957 -4.1564698 10.166667
4.0508399 0.59920478 -4.0020304 10.5
4.4957356 0.63419914 -4.0148888 10.5
-1.139235 0.93221641 -4.2305984 13.5
2.5356531 1.0161457 -4.0438967 13.5
3.7280316 0.88013542 -4.1124439 12
4.0469699 0.90254879 -4.0041652 12
4.5346556 1.0013814 -4.144804 12.125
4.5385928 1.3679334 -4.1753712 13.75
4.5451341 1.6567008 -4.1831446 15
-1.3679112 0.19330007 -3.7952383 8.8848753
-1.0694886 0.067366287 -3.6995173 8.0080004
2.6512785 0.25024614 -3.961643 9.0541668
3.0129483 0.2583617 -3.8947473 9
4.2537122 0.30532798 -3.966006 9.1564999
4.4609022 0.17073019 -3.8016717 8.333334
-1.1865716 0.55314463 -3.7427628 11.50225
2.6398766 0.61376554 -3.9635894 11.220833
3.0469096 0.57848787 -3.8859513 10.833333
4.1303501 0.60248423 -3.9787085 10.57825
4.4562511 0.61549151 -3.7892044 10.5
-1.1804026 0.91914999 -3.7992485 14
2.5935588 0.96447891 -3.9589472 13.25
3.0601332 1.050861 -3.8735073 13.5
4.0646286 0.90293986 -3.9898112 12
4.4694624 1.0349829 -3.7940569 12.5
3.0510321 1.3242089 -3.8802552 15
3.6297078 1.4022816 -3.7555909 15.158
4.4692154 1.464571 -3.8013051 14.5
4.4980502 1.6036428 -3.9398966 15
4.4180803 -0.2976346 -3.5600746 6
-1.6221412 0.19374773 -3.3142009 9.0129995
-1.4262558 0.25410283 -3.3462777 9.5114994
4.3748069 0.1930477 -3.3686264 8.5
4.410429 0.19812912 -3.5527337 8.5
-1.2481852 0.55727929 -3.4033551 11.867142
4.3725543 0.58004928 -3.3530827 10.5
4.4085979 0.59536004 -3.5420265 10.5
4.3789086 0.93690443 -3.321243 12.333333
4.4111366 1.0636265 -3.516077 12.833334
4.3698821 1.3667926 -3.2983854 14.5
4.406517 1.3688637 -3.491132 14.333333
-1.3979232 0.30669984 -2.9242206 10.2127
4.3063898 0.13786674 -3.0181453 8.25
-1.328161 0.54200804 -2.9869432 12.211901
4.3092628 0.55223316 -2.9944692 10.5
4.3032498 1.0910445 -2.9231718 13.416666
4.319541 1.3468938 -3.0133269 14.666667
-1.4403566 0.2168365 -2.5445755 9.6026592
4.2233586 0.17267662 -2.5359604 8.5
-1.4446461 0.55675209 -2.5532312 12.878375
4.2297215 0.58617157 -2.5531774 10.875
4.2503176 1.0076355 -2.621021 13.2
4.2449822 1.3344064 -2.5930445 15
-1.5361159 0.18748984 -2.1588573 9.5292501
4.1436081 0.16852672 -2.1258142 8.5333338
-1.622918 0.67875373 -2.1762307 14.51825
-1.5367365 0.5754236 -2.1544697 13.603701
4.1545029 0.66728795 -2.133301 11.5625
4.1754942 1.0240548 -2.2188232 13.6
4.1849475 1.2733322 -2.2388799 15
1.8872616 0.045201734 -1.7582492 8.1564999
4.0887008 0.39140674 -1.7991139 10.049
4.0723457 0.59182638 -1.7980436 11.326833
4.0700474 1.0042492 -1.7183979 13.924093
4.1171217 1.2154143 -1.8875015 15.0735
1.6387537 0.038046245 -1.4218423 8.1555004
3.8819463 0.29793489 -1.3122114 9.6040001
4.0274258 0.37503117 -1.4527818 10
3.9869554 0.62905282 -1.3260005 11.75
4.0798473 0.58488762 -1.4971327 11.333334
3.9837842 0.96510535 -1.2381628 14
4.0400586 0.99072123 -1.4184048 14.03625
-0.53342134 0.30850682 -1.085004 14.637875
-0.12711404 0.19464462 -1.0783517 12.571387
0.16035858 0.20069483 -1.0324252 12.980621
0.58540547 0.15216902 -1.0221906 11.66525
0.87185425 0.024852227 -1.1117101 8.1609993
3.8589258 0.18338042 -0.94728786 8.8482704
3.9223423 0.61563694 -0.91968757 11.833333
3.9256067 0.99213958 -0.92700559 14.400001
3.8426015 0.067843325 -0.53196436 8.1389999
3.7695775 0.065946832 -0.12472261 8.1360006
3.0385695 0.21447068 0.35615271 9.5
3.3365049 0.19076899 0.13959938 9.125
3.0428507 0.65185553 0.36226144 13.543834
3.3370736 0.59849709 0.1431476 12.571429
3.0743275 0.82983863 0.34508055 15.06575
3.2982912 0.8857435 0.17098683 15
3.6595943 0.98195946 0.072940275 15.1345
2.8501873 0.2030375 0.50730836 9.5
2.9025578 0.65349782 0.47268885 13.782625
2.990705 0.80958605 0.41471171 15
-0.16359124 0.01769674 1.0113716 8.0854998
-1.3456488 0.034128182 1.4312959 8.0683756
-1.1917866 0.03332537 1.504792 8.0707502
-0.23977575 0.12465551 1.3508037 10.196111
0.13369888 0.026660297 1.5304246 8.0925999
-2.1616611 0.65134794 1.3076634 14.8105
-2.2571652 0.22503321 1.8856924 9.7129993
-0.13544449 0.12296651 1.8036619 9.5877504
0.070223302 0.21223399 1.8929694 10.767861
-2.2343056 0.61974204 1.7982063 13.621694
0.057809457 0.42785689 1.8610764 14
-2.2558575 0.80337435 1.9905399 15
-2.2975993 0.18694413 2.1569052 9.2236433
-0.041852139 0.03539348 2.037421 8.0895004
0.14024279 0.17954083 2.057116 10.092
-2.3021188 0.59013802 2.2157249 12.75
-2.2922516 0.84870219 2.1994021 15.022
-2.4207866 0.25511274 2.7415833 9.5
-2.3637905 0.21049485 2.502213 9.25
-2.4246204 0.58217555 2.7717774 12
-2.3718059 0.58797282 2.5707064 12.285714
-2.4184451 0.91503549 2.7725074 14.5
-2.3673503 0.90066826 2.568845 14.78425
-2.4373491 0.26288053 2.8723121 9.5174999
-2.1391504 0.13563317 2.9471509 8.5906668
-1.7787266 0.11505047 3.0018768 8.4689999
-1.4301653 0.23553042 3.0621862 9.5
-0.97442675 0.35767597 3.0109386 10.749434
-0.42381537 0.3836447 3.1053281 11
-0.24602698 0.22295167 3.1269131 9.550231
-2.4301441 0.59452373 2.8698444 12
-2.2055709 0.57819849 2.9156539 12
-1.7477775 0.69728643 3.0043118 13.219318
-1.4068289 0.63020384 3.0422285 12.852667
-0.97997791 0.58851391 3.015399 12.79124
-0.54801232 0.62481332 3.0877404 13.184786
-0.11029099 0.64424038 3.1700921 13.295
0.016060613 0.61891115 3.189199 13
-2.4315002 0.93718004 2.8785408 14.5
-2.1839147 0.94798446 2.9223804 14.836
-1.8318825 0.89449954 2.9884217 14.712
-1.416431 0.89822865 3.0491035 15.026
-0.97143465 0.84236974 3.0001571 15.027
-0.50613707 0.83851624 3.0960228 15.028
-0.162278 0.84754944 3.1662569 15.0445
0.022722431 0.85229111 3.1895604 15
-0.1780645 0.056301463 3.2309122 8.0885
0.11062115 0.28081581 3.2177429 10.091
-0.0047559077 0.50653487 3.2082071 12.09
0.016525723 0.62394547 3.2187543 13
0.054355644 0.8561734 3.2048111 15.0905
